ply
format ascii 1.0
comment PCL generated
element vertex 1034
property float x
property float y
property float z
property uchar red
property uchar green
property uchar blue
property float nx
property float ny
property float nz
property float curvature
element camera 0
property float view_px
property float view_py
property float view_pz
property float x_axisx
property float x_axisy
property float x_axisz
property float y_axisx
property float y_axisy
property float y_axisz
property float z_axisx
property float z_axisy
property float z_axisz
property float focal
property float scalex
property float scaley
property float centerx
property float centery
property int viewportx
property int viewporty
property float k1
property float k2
end_header
588.95026 450.08185 16.226166 0 255 0 0 0 0 0
583.96637 434.68607 16.527937 0 255 0 0 0 0 0
583.99969 434.78903 16.523111 0 255 0 0 0 0 0
584.02875 434.87845 16.528296 0 255 0 0 0 0 0
584.0752 435.02246 16.518114 0 255 0 0 0 0 0
584.11993 435.16043 16.517408 0 255 0 0 0 0 0
584.18945 435.37601 16.499361 0 255 0 0 0 0 0
584.245 435.54715 16.504391 0 255 0 0 0 0 0
584.31995 435.77838 16.502897 0 255 0 0 0 0 0
584.41736 436.0795 16.496315 0 255 0 0 0 0 0
584.52991 436.42685 16.495058 0 255 0 0 0 0 0
583.8537 434.32846 16.507645 0 255 0 0 0 0 0
584.70996 436.94257 16.480673 0 255 0 0 0 0 0
583.86475 434.36148 16.519688 0 255 0 0 0 0 0
584.93774 437.63846 16.46434 0 255 0 0 0 0 0
583.88159 434.41284 16.52244 0 255 0 0 0 0 0
585.2854 438.70087 16.435358 0 255 0 0 0 0 0
583.90295 434.47815 16.520155 0 255 0 0 0 0 0
585.82428 440.34714 16.3997 0 255 0 0 0 0 0
583.91968 434.52875 16.528738 0 255 0 0 0 0 0
586.74683 443.16452 16.352377 0 255 0 0 0 0 0
583.94318 434.60028 16.529428 0 255 0 0 0 0 0
588.9939 450.02771 16.227167 0 255 0 0 0 0 0
583.96906 434.67938 16.530199 0 255 0 0 0 0 0
584.00494 434.78928 16.522299 0 255 0 0 0 0 0
584.03259 434.87323 16.529594 0 255 0 0 0 0 0
584.08191 435.02426 16.516727 0 255 0 0 0 0 0
584.12469 435.15488 16.518517 0 255 0 0 0 0 0
584.19318 435.36469 16.502045 0 255 0 0 0 0 0
584.25104 435.54111 16.505299 0 255 0 0 0 0 0
584.32855 435.77762 16.502296 0 255 0 0 0 0 0
584.42761 436.08026 16.495319 0 255 0 0 0 0 0
584.54248 436.431 16.493376 0 255 0 0 0 0 0
583.85834 434.33417 16.503494 0 255 0 0 0 0 0
584.71869 436.93762 16.48085 0 255 0 0 0 0 0
583.86682 434.35895 16.520632 0 255 0 0 0 0 0
584.9483 437.6329 16.464441 0 255 0 0 0 0 0
583.88599 434.41696 16.519558 0 255 0 0 0 0 0
585.29688 438.68872 16.436087 0 255 0 0 0 0 0
583.90698 434.48059 16.518297 0 255 0 0 0 0 0
585.8382 440.32788 16.400755 0 255 0 0 0 0 0
583.92554 434.53632 16.524374 0 255 0 0 0 0 0
586.77368 443.15985 16.351656 0 255 0 0 0 0 0
583.95087 434.6131 16.522808 0 255 0 0 0 0 0
589.03625 450.00955 16.226646 0 255 0 0 0 0 0
583.97363 434.68176 16.528585 0 255 0 0 0 0 0
584.00757 434.78448 16.523706 0 255 0 0 0 0 0
584.03479 434.86658 16.531605 0 255 0 0 0 0 0
584.08679 435.02463 16.516008 0 255 0 0 0 0 0
584.13116 435.15875 16.51663 0 255 0 0 0 0 0
584.20203 435.37393 16.498606 0 255 0 0 0 0 0
584.25916 435.54657 16.503147 0 255 0 0 0 0 0
584.33246 435.76816 16.504066 0 255 0 0 0 0 0
584.43408 436.07608 16.495625 0 255 0 0 0 0 0
584.55115 436.43024 16.492865 0 255 0 0 0 0 0
583.85925 434.32663 16.507551 0 255 0 0 0 0 0
584.72992 436.93387 16.480665 0 255 0 0 0 0 0
583.86993 434.35791 16.520578 0 255 0 0 0 0 0
584.95856 437.61905 16.465651 0 255 0 0 0 0 0
583.89093 434.4209 16.516665 0 255 0 0 0 0 0
585.3136 438.68317 16.43581 0 255 0 0 0 0 0
583.91217 434.48453 16.515526 0 255 0 0 0 0 0
585.862 440.32626 16.399811 0 255 0 0 0 0 0
583.93085 434.54025 16.521725 0 255 0 0 0 0 0
586.80322 443.14584 16.351442 0 255 0 0 0 0 0
583.95477 434.61179 16.522743 0 255 0 0 0 0 0
589.091 449.99976 16.225376 0 255 0 0 0 0 0
583.97723 434.67862 16.529295 0 255 0 0 0 0 0
584.01257 434.78479 16.522896 0 255 0 0 0 0 0
584.04248 434.87393 16.528069 0 255 0 0 0 0 0
584.09204 435.02289 16.515921 0 255 0 0 0 0 0
584.13678 435.15689 16.516535 0 255 0 0 0 0 0
584.2041 435.35904 16.502413 0 255 0 0 0 0 0
584.26544 435.54248 16.503548 0 255 0 0 0 0 0
584.33936 435.76379 16.50441 0 255 0 0 0 0 0
584.44263 436.07324 16.495483 0 255 0 0 0 0 0
584.55951 436.42331 16.493462 0 255 0 0 0 0 0
583.86108 434.32242 16.509558 0 255 0 0 0 0 0
584.73987 436.92847 16.480822 0 255 0 0 0 0 0
583.87238 434.35529 16.521517 0 255 0 0 0 0 0
584.97308 437.62045 16.464582 0 255 0 0 0 0 0
583.89185 434.41315 16.520397 0 255 0 0 0 0 0
585.32874 438.67596 16.435789 0 255 0 0 0 0 0
583.91547 434.4834 16.515471 0 255 0 0 0 0 0
585.88202 440.31744 16.399662 0 255 0 0 0 0 0
583.93152 434.53052 16.525982 0 255 0 0 0 0 0
586.8335 443.13989 16.350666 0 255 0 0 0 0 0
583.95734 434.60709 16.524324 0 255 0 0 0 0 0
589.13336 449.96237 16.225672 0 255 0 0 0 0 0
583.98285 434.68256 16.526896 0 255 0 0 0 0 0
584.01678 434.78336 16.522827 0 255 0 0 0 0 0
584.04639 434.87064 16.528685 0 255 0 0 0 0 0
584.09692 435.02124 16.515841 0 255 0 0 0 0 0
584.14093 435.15149 16.517654 0 255 0 0 0 0 0
584.20941 435.35526 16.502874 0 255 0 0 0 0 0
584.27246 435.54214 16.502926 0 255 0 0 0 0 0
584.34772 435.76511 16.503353 0 255 0 0 0 0 0
584.45129 436.07239 16.494926 0 255 0 0 0 0 0
584.5686 436.42026 16.493311 0 255 0 0 0 0 0
583.86334 434.31982 16.510538 0 255 0 0 0 0 0
584.75171 436.92862 16.47998 0 255 0 0 0 0 0
583.8764 434.35757 16.519495 0 255 0 0 0 0 0
584.98505 437.61429 16.464659 0 255 0 0 0 0 0
583.89551 434.41376 16.519398 0 255 0 0 0 0 0
585.34515 438.67252 16.435287 0 255 0 0 0 0 0
583.91602 434.47382 16.519939 0 255 0 0 0 0 0
585.90259 440.31046 16.399321 0 255 0 0 0 0 0
583.93732 434.53619 16.522472 0 255 0 0 0 0 0
586.86505 443.1376 16.349594 0 255 0 0 0 0 0
583.96338 434.61276 16.520979 0 255 0 0 0 0 0
589.17676 449.92868 16.225769 0 255 0 0 0 0 0
583.98505 434.67599 16.529165 0 255 0 0 0 0 0
584.01929 434.77664 16.524961 0 255 0 0 0 0 0
584.04962 434.86557 16.529995 0 255 0 0 0 0 0
584.10065 435.01599 16.517054 0 255 0 0 0 0 0
584.14563 435.14786 16.518169 0 255 0 0 0 0 0
584.21716 435.3587 16.501099 0 255 0 0 0 0 0
584.27771 435.53629 16.503849 0 255 0 0 0 0 0
584.35608 435.76636 16.502298 0 255 0 0 0 0 0
584.45868 436.06781 16.495216 0 255 0 0 0 0 0
584.57959 436.42276 16.492025 0 255 0 0 0 0 0
583.86853 434.32529 16.50638 0 255 0 0 0 0 0
584.76227 436.92291 16.480127 0 255 0 0 0 0 0
583.87622 434.34662 16.525364 0 255 0 0 0 0 0
584.9978 437.60785 16.464724 0 255 0 0 0 0 0
583.89996 434.41595 16.517452 0 255 0 0 0 0 0
585.35986 438.66116 16.435732 0 255 0 0 0 0 0
583.92175 434.47937 16.516262 0 255 0 0 0 0 0
585.92188 440.29547 16.399734 0 255 0 0 0 0 0
583.93695 434.52295 16.528452 0 255 0 0 0 0 0
586.89185 443.11578 16.349972 0 255 0 0 0 0 0
583.96783 434.61313 16.520092 0 255 0 0 0 0 0
589.22357 449.89575 16.225719 0 255 0 0 0 0 0
583.98859 434.67282 16.529875 0 255 0 0 0 0 0
584.02545 434.7804 16.522682 0 255 0 0 0 0 0
584.05737 434.87283 16.526457 0 255 0 0 0 0 0
584.10706 435.01779 16.515673 0 255 0 0 0 0 0
584.15613 435.1604 16.513248 0 255 0 0 0 0 0
584.22589 435.36383 16.498758 0 255 0 0 0 0 0
584.28455 435.53394 16.503735 0 255 0 0 0 0 0
584.36237 435.7601 16.503111 0 255 0 0 0 0 0
584.46655 436.06308 16.495499 0 255 0 0 0 0 0
584.58728 436.41391 16.493002 0 255 0 0 0 0 0
583.8678 434.31467 16.512503 0 255 0 0 0 0 0
584.77032 436.91595 16.480639 0 255 0 0 0 0 0
583.88153 434.35397 16.520386 0 255 0 0 0 0 0
585.00891 437.604 16.46454 0 255 0 0 0 0 0
583.901 434.41 16.520245 0 255 0 0 0 0 0
585.37378 438.65637 16.435501 0 255 0 0 0 0 0
583.92352 434.47501 16.518023 0 255 0 0 0 0 0
585.94061 440.29108 16.399239 0 255 0 0 0 0 0
583.94171 434.52704 16.525812 0 255 0 0 0 0 0
586.91412 443.09753 16.350288 0 255 0 0 0 0 0
583.9682 434.60336 16.524143 0 255 0 0 0 0 0
589.26294 449.86948 16.225611 0 255 0 0 0 0 0
583.99261 434.6734 16.529039 0 255 0 0 0 0 0
584.02856 434.77737 16.523357 0 255 0 0 0 0 0
584.06073 434.86969 16.527082 0 255 0 0 0 0 0
584.11322 435.02167 16.513655 0 255 0 0 0 0 0
584.15466 435.14072 16.519207 0 255 0 0 0 0 0
584.22864 435.35474 16.500908 0 255 0 0 0 0 0
584.29083 435.53381 16.503126 0 255 0 0 0 0 0
584.36737 435.75424 16.503944 0 255 0 0 0 0 0
584.47235 436.05692 16.496231 0 255 0 0 0 0 0
584.59528 436.41113 16.49287 0 255 0 0 0 0 0
583.87433 434.3251 16.505266 0 255 0 0 0 0 0
584.78149 436.91623 16.479809 0 255 0 0 0 0 0
583.88489 434.35464 16.519354 0 255 0 0 0 0 0
585.01813 437.59241 16.46549 0 255 0 0 0 0 0
583.90338 434.40732 16.521143 0 255 0 0 0 0 0
585.39111 438.65872 16.434294 0 255 0 0 0 0 0
583.9295 434.48236 16.513445 0 255 0 0 0 0 0
585.95868 440.28058 16.399307 0 255 0 0 0 0 0
583.94208 434.51736 16.530075 0 255 0 0 0 0 0
586.94196 443.08994 16.349689 0 255 0 0 0 0 0
583.97406 434.60907 16.520802 0 255 0 0 0 0 0
589.30505 449.8421 16.225456 0 255 0 0 0 0 0
583.99744 434.6756 16.527422 0 255 0 0 0 0 0
584.03375 434.77951 16.52182 0 255 0 0 0 0 0
584.06494 434.86823 16.527014 0 255 0 0 0 0 0
584.11542 435.01288 16.516172 0 255 0 0 0 0 0
584.16211 435.14621 16.51671 0 255 0 0 0 0 0
584.23358 435.35098 16.501375 0 255 0 0 0 0 0
584.29816 435.53534 16.501997 0 255 0 0 0 0 0
584.37469 435.75375 16.503365 0 255 0 0 0 0 0
584.48242 436.06168 16.49441 0 255 0 0 0 0 0
584.60376 436.40817 16.492729 0 255 0 0 0 0 0
583.87695 434.32236 16.506241 0 255 0 0 0 0 0
584.79462 436.9158 16.478947 0 255 0 0 0 0 0
583.88531 434.34528 16.524235 0 255 0 0 0 0 0
585.03345 437.59119 16.464684 0 255 0 0 0 0 0
583.90741 434.40778 16.520138 0 255 0 0 0 0 0
585.4054 438.64319 16.435207 0 255 0 0 0 0 0
583.93146 434.47598 16.5161 0 255 0 0 0 0 0
585.97827 440.26309 16.399899 0 255 0 0 0 0 0
583.94647 434.5177 16.529148 0 255 0 0 0 0 0
586.97083 443.06918 16.349894 0 255 0 0 0 0 0
583.974 434.59555 16.526482 0 255 0 0 0 0 0
589.36633 449.84171 16.223532 0 255 0 0 0 0 0
584.00061 434.67059 16.528906 0 255 0 0 0 0 0
584.03784 434.77609 16.522478 0 255 0 0 0 0 0
584.0705 434.86826 16.526239 0 255 0 0 0 0 0
584.12274 435.01633 16.514135 0 255 0 0 0 0 0
584.16864 435.14594 16.516006 0 255 0 0 0 0 0
584.24146 435.35229 16.500147 0 255 0 0 0 0 0
584.30475 435.53098 16.502392 0 255 0 0 0 0 0
584.38519 435.7583 16.501356 0 255 0 0 0 0 0
584.49005 436.05484 16.49511 0 255 0 0 0 0 0
584.61255 436.40091 16.493319 0 255 0 0 0 0 0
583.88257 434.32947 16.501055 0 255 0 0 0 0 0
584.80249 436.9046 16.480104 0 255 0 0 0 0 0
583.88885 434.34586 16.523199 0 255 0 0 0 0 0
585.04797 437.59235 16.463615 0 255 0 0 0 0 0
583.91223 434.41165 16.517248 0 255 0 0 0 0 0
585.41974 438.63388 16.435429 0 255 0 0 0 0 0
583.93652 434.47986 16.513329 0 255 0 0 0 0 0
585.99939 440.25772 16.399364 0 255 0 0 0 0 0
583.95404 434.52841 16.523046 0 255 0 0 0 0 0
586.99829 443.05521 16.349712 0 255 0 0 0 0 0
583.97882 434.59769 16.524778 0 255 0 0 0 0 0
589.40912 449.80737 16.223639 0 255 0 0 0 0 0
584.00446 434.66922 16.528843 0 255 0 0 0 0 0
584.04138 434.77286 16.523144 0 255 0 0 0 0 0
584.07312 434.86136 16.52824 0 255 0 0 0 0 0
584.12579 435.00922 16.515999 0 255 0 0 0 0 0
584.17456 435.14584 16.515316 0 255 0 0 0 0 0
584.24738 435.35019 16.50005 0 255 0 0 0 0 0
584.30927 435.52322 16.50383 0 255 0 0 0 0 0
584.39038 435.75027 16.502645 0 255 0 0 0 0 0
584.49872 436.05386 16.494553 0 255 0 0 0 0 0
584.62354 436.40326 16.492033 0 255 0 0 0 0 0
583.88074 434.31555 16.509232 0 255 0 0 0 0 0
584.81171 436.8992 16.480272 0 255 0 0 0 0 0
583.8927 434.34818 16.521179 0 255 0 0 0 0 0
585.05914 437.58624 16.463707 0 255 0 0 0 0 0
583.91284 434.40396 16.520985 0 255 0 0 0 0 0
585.43378 438.62671 16.435425 0 255 0 0 0 0 0
583.93732 434.47202 16.516899 0 255 0 0 0 0 0
586.01733 440.24704 16.399433 0 255 0 0 0 0 0
583.95435 434.51874 16.527311 0 255 0 0 0 0 0
587.02936 443.05676 16.348373 0 255 0 0 0 0 0
583.98474 434.60333 16.521435 0 255 0 0 0 0 0
589.44556 449.76459 16.224304 0 255 0 0 0 0 0
584.00995 434.67313 16.526445 0 255 0 0 0 0 0
584.04413 434.76794 16.524549 0 255 0 0 0 0 0
584.07855 434.86337 16.526787 0 255 0 0 0 0 0
584.13037 435.00757 16.515923 0 255 0 0 0 0 0
584.177 435.13687 16.517649 0 255 0 0 0 0 0
584.25354 435.35004 16.499397 0 255 0 0 0 0 0
584.31659 435.52472 16.502699 0 255 0 0 0 0 0
584.39441 435.74057 16.504414 0 255 0 0 0 0 0
584.5069 436.05301 16.494003 0 255 0 0 0 0 0
584.62671 436.38541 16.494923 0 255 0 0 0 0 0
583.88092 434.30637 16.51432 0 255 0 0 0 0 0
584.82349 436.89703 16.479755 0 255 0 0 0 0 0
583.89526 434.3454 16.522116 0 255 0 0 0 0 0
585.07239 437.58142 16.463486 0 255 0 0 0 0 0
583.9173 434.4061 16.519037 0 255 0 0 0 0 0
585.44958 438.61887 16.435392 0 255 0 0 0 0 0
583.94196 434.47412 16.51503 0 255 0 0 0 0 0
586.03894 440.23923 16.399075 0 255 0 0 0 0 0
583.961 434.52594 16.522932 0 255 0 0 0 0 0
587.05438 443.03073 16.349056 0 255 0 0 0 0 0
583.9892 434.60364 16.52055 0 255 0 0 0 0 0
589.49091 449.72903 16.224367 0 255 0 0 0 0 0
584.01221 434.66641 16.528713 0 255 0 0 0 0 0
584.04852 434.76633 16.524477 0 255 0 0 0 0 0
584.08392 434.86343 16.526016 0 255 0 0 0 0 0
584.13428 435.00214 16.517136 0 255 0 0 0 0 0
584.18451 435.14023 16.515743 0 255 0 0 0 0 0
584.25781 435.34235 16.500973 0 255 0 0 0 0 0
584.32141 435.51678 16.504131 0 255 0 0 0 0 0
584.40125 435.73602 16.504761 0 255 0 0 0 0 0
584.51398 436.04626 16.494711 0 255 0 0 0 0 0
584.6369 436.38382 16.494387 0 255 0 0 0 0 0
583.88947 434.3215 16.503996 0 255 0 0 0 0 0
584.83466 436.89505 16.479248 0 255 0 0 0 0 0
583.89581 434.3378 16.526016 0 255 0 0 0 0 0
585.08356 437.57312 16.463852 0 255 0 0 0 0 0
583.92035 434.40497 16.518986 0 255 0 0 0 0 0
585.46454 438.6113 16.435375 0 255 0 0 0 0 0
583.9447 434.47122 16.515881 0 255 0 0 0 0 0
586.06 440.23364 16.39854 0 255 0 0 0 0 0
583.96136 434.51617 16.527193 0 255 0 0 0 0 0
587.08374 443.02213 16.348431 0 255 0 0 0 0 0
583.98859 434.59027 16.526239 0 255 0 0 0 0 0
589.53741 449.70566 16.223867 0 255 0 0 0 0 0
584.01544 434.66327 16.529428 0 255 0 0 0 0 0
584.05145 434.76132 16.525879 0 255 0 0 0 0 0
584.08643 434.85654 16.528019 0 255 0 0 0 0 0
584.14105 435.00571 16.515108 0 255 0 0 0 0 0
584.1911 435.14191 16.514448 0 255 0 0 0 0 0
584.26373 435.34018 16.500875 0 255 0 0 0 0 0
584.32843 435.51627 16.50351 0 255 0 0 0 0 0
584.41095 435.74078 16.502764 0 255 0 0 0 0 0
584.52197 436.04337 16.494579 0 255 0 0 0 0 0
584.6452 436.37869 16.494617 0 255 0 0 0 0 0
583.88751 434.30759 16.512175 0 255 0 0 0 0 0
584.83972 436.87848 16.481417 0 255 0 0 0 0 0
583.90265 434.34824 16.519058 0 255 0 0 0 0 0
585.0946 437.56693 16.463945 0 255 0 0 0 0 0
583.92206 434.40057 16.520832 0 255 0 0 0 0 0
585.47986 438.60776 16.434889 0 255 0 0 0 0 0
583.94476 434.4617 16.520359 0 255 0 0 0 0 0
586.07501 440.21536 16.399391 0 255 0 0 0 0 0
583.9646 434.51498 16.52714 0 255 0 0 0 0 0
587.11066 443.01218 16.347982 0 255 0 0 0 0 0
583.99017 434.58386 16.528648 0 255 0 0 0 0 0
589.57605 449.6701 16.224133 0 255 0 0 0 0 0
584.021 434.66711 16.527031 0 255 0 0 0 0 0
584.05786 434.76685 16.522871 0 255 0 0 0 0 0
584.09064 434.85498 16.52795 0 255 0 0 0 0 0
584.14496 435.00223 16.51568 0 255 0 0 0 0 0
584.19275 435.1311 16.517387 0 255 0 0 0 0 0
584.27252 435.34717 16.497984 0 255 0 0 0 0 0
584.3338 435.51224 16.503925 0 255 0 0 0 0 0
584.41553 435.73285 16.504063 0 255 0 0 0 0 0
584.52875 436.03876 16.494879 0 255 0 0 0 0 0
584.65765 436.38666 16.492201 0 255 0 0 0 0 0
583.89203 434.3114 16.509045 0 255 0 0 0 0 0
584.85291 436.88199 16.47991 0 255 0 0 0 0 0
583.90442 434.34387 16.520985 0 255 0 0 0 0 0
585.10706 437.56229 16.463737 0 255 0 0 0 0 0
583.92395 434.39612 16.522675 0 255 0 0 0 0 0
585.49609 438.60382 16.434389 0 255 0 0 0 0 0
583.95044 434.46719 16.51668 0 255 0 0 0 0 0
586.09534 440.20779 16.399054 0 255 0 0 0 0 0
583.96741 434.51202 16.527946 0 255 0 0 0 0 0
587.13721 442.99591 16.347954 0 255 0 0 0 0 0
583.99628 434.58939 16.525301 0 255 0 0 0 0 0
589.62305 449.64835 16.223534 0 255 0 0 0 0 0
584.02673 434.67087 16.524628 0 255 0 0 0 0 0
584.06201 434.76532 16.5228 0 255 0 0 0 0 0
584.09247 434.84628 16.530647 0 255 0 0 0 0 0
584.15112 435.00397 16.514301 0 255 0 0 0 0 0
584.198 435.12915 16.5173 0 255 0 0 0 0 0
584.27972 435.34857 16.496765 0 255 0 0 0 0 0
584.34149 435.51349 16.502789 0 255 0 0 0 0 0
584.42261 435.73022 16.503946 0 255 0 0 0 0 0
584.53809 436.03946 16.493898 0 255 0 0 0 0 0
584.66528 436.37964 16.492811 0 255 0 0 0 0 0
583.89526 434.31201 16.507973 0 255 0 0 0 0 0
584.86414 436.88199 16.47908 0 255 0 0 0 0 0
583.90894 434.34775 16.517977 0 255 0 0 0 0 0
585.12085 437.56345 16.462679 0 255 0 0 0 0 0
583.92804 434.39835 16.520733 0 255 0 0 0 0 0
585.50861 438.59274 16.434872 0 255 0 0 0 0 0
583.95477 434.46939 16.514818 0 255 0 0 0 0 0
586.11377 440.19876 16.398932 0 255 0 0 0 0 0
583.97058 434.5108 16.527893 0 255 0 0 0 0 0
587.16272 442.98209 16.347803 0 255 0 0 0 0 0
583.9978 434.58295 16.527708 0 255 0 0 0 0 0
589.65936 449.60699 16.22411 0 255 0 0 0 0 0
584.02783 434.6626 16.527685 0 255 0 0 0 0 0
584.06659 434.76559 16.521999 0 255 0 0 0 0 0
584.09918 434.85178 16.527807 0 255 0 0 0 0 0
584.15509 435.00049 16.514875 0 255 0 0 0 0 0
584.20496 435.13266 16.515404 0 255 0 0 0 0 0
584.28259 435.33929 16.498915 0 255 0 0 0 0 0
584.34479 435.504 16.504751 0 255 0 0 0 0 0
584.43188 435.73502 16.501955 0 255 0 0 0 0 0
584.5462 436.03848 16.493349 0 255 0 0 0 0 0
584.67297 436.37463 16.49305 0 255 0 0 0 0 0
583.8999 434.31577 16.504841 0 255 0 0 0 0 0
584.87732 436.88541 16.477571 0 255 0 0 0 0 0
583.90765 434.33524 16.524841 0 255 0 0 0 0 0
585.1333 437.55875 16.462473 0 255 0 0 0 0 0
583.93115 434.39716 16.520681 0 255 0 0 0 0 0
585.52484 438.58875 16.434372 0 255 0 0 0 0 0
583.95618 434.4631 16.517481 0 255 0 0 0 0 0
586.12982 440.1799 16.399765 0 255 0 0 0 0 0
583.97717 434.51797 16.523516 0 255 0 0 0 0 0
587.19189 442.97314 16.347181 0 255 0 0 0 0 0
584.00397 434.58841 16.524361 0 255 0 0 0 0 0
589.70679 449.58688 16.223412 0 255 0 0 0 0 0
584.03168 434.66113 16.52762 0 255 0 0 0 0 0
584.06879 434.75879 16.524139 0 255 0 0 0 0 0
584.10364 434.8501 16.527735 0 255 0 0 0 0 0
584.16193 435.00397 16.512846 0 255 0 0 0 0 0
584.20752 435.12354 16.517736 0 255 0 0 0 0 0
584.28442 435.32629 16.502178 0 255 0 0 0 0 0
584.35388 435.50882 16.502583 0 255 0 0 0 0 0
584.43964 435.73419 16.501369 0 255 0 0 0 0 0
584.5528 436.03183 16.494066 0 255 0 0 0 0 0
584.68195 436.37125 16.492901 0 255 0 0 0 0 0
583.90033 434.30826 16.508907 0 255 0 0 0 0 0
584.88214 436.86667 16.480066 0 255 0 0 0 0 0
583.90686 434.32434 16.530722 0 255 0 0 0 0 0
585.14294 437.54657 16.463417 0 255 0 0 0 0 0
583.9342 434.396 16.52063 0 255 0 0 0 0 0
585.53748 438.57541 16.43508 0 255 0 0 0 0 0
583.95758 434.45685 16.520145 0 255 0 0 0 0 0
586.15283 440.17963 16.398647 0 255 0 0 0 0 0
583.98187 434.52005 16.52173 0 255 0 0 0 0 0
587.22113 442.96411 16.346558 0 255 0 0 0 0 0
584.00311 434.57507 16.530054 0 255 0 0 0 0 0
589.74133 449.53305 16.224562 0 255 0 0 0 0 0
584.03619 434.66138 16.526777 0 255 0 0 0 0 0
584.07428 434.76068 16.522598 0 255 0 0 0 0 0
584.1087 434.85016 16.526968 0 255 0 0 0 0 0
584.16412 434.99503 16.515362 0 255 0 0 0 0 0
584.21405 435.12509 16.516439 0 255 0 0 0 0 0
584.29498 435.33664 16.498159 0 255 0 0 0 0 0
584.36023 435.50638 16.502478 0 255 0 0 0 0 0
584.44183 435.71878 16.504543 0 255 0 0 0 0 0
584.56207 436.03247 16.493086 0 255 0 0 0 0 0
584.69153 436.36969 16.492374 0 255 0 0 0 0 0
583.9007 434.30075 16.512974 0 255 0 0 0 0 0
584.89679 436.87372 16.477892 0 255 0 0 0 0 0
583.914 434.33463 16.523758 0 255 0 0 0 0 0
585.15533 437.54181 16.463211 0 255 0 0 0 0 0
583.93915 434.39975 16.517736 0 255 0 0 0 0 0
585.55365 438.57129 16.434582 0 255 0 0 0 0 0
583.96332 434.46228 16.516466 0 255 0 0 0 0 0
586.17023 440.1644 16.399092 0 255 0 0 0 0 0
583.98145 434.50861 16.526859 0 255 0 0 0 0 0
587.2467 442.94568 16.34668 0 255 0 0 0 0 0
584.01318 434.59076 16.521774 0 255 0 0 0 0 0
589.78204 449.49591 16.224791 0 255 0 0 0 0 0
584.03876 434.65646 16.528273 0 255 0 0 0 0 0
584.07709 434.75562 16.524002 0 255 0 0 0 0 0
584.11444 434.85199 16.525509 0 255 0 0 0 0 0
584.16693 434.98785 16.517229 0 255 0 0 0 0 0
584.22205 435.13022 16.513933 0 255 0 0 0 0 0
584.29877 435.32901 16.499743 0 255 0 0 0 0 0
584.36658 435.50394 16.502371 0 255 0 0 0 0 0
584.44952 435.7179 16.503958 0 255 0 0 0 0 0
584.56299 436.01117 16.497206 0 255 0 0 0 0 0
584.70184 436.3699 16.491467 0 255 0 0 0 0 0
583.9035 434.29968 16.512926 0 255 0 0 0 0 0
584.90649 436.86783 16.478052 0 255 0 0 0 0 0
583.92059 434.34326 16.517782 0 255 0 0 0 0 0
585.16992 437.54251 16.462141 0 255 0 0 0 0 0
583.94281 434.40021 16.516739 0 255 0 0 0 0 0
585.57056 438.56897 16.43384 0 255 0 0 0 0 0
583.96661 434.461 16.516413 0 255 0 0 0 0 0
586.18677 440.14728 16.399734 0 255 0 0 0 0 0
583.98676 434.51233 16.52421 0 255 0 0 0 0 0
587.27295 442.92905 16.346655 0 255 0 0 0 0 0
584.01422 434.58252 16.525002 0 255 0 0 0 0 0
589.82043 449.45312 16.225332 0 255 0 0 0 0 0
584.04321 434.65668 16.52743 0 255 0 0 0 0 0
584.08319 434.75922 16.521723 0 255 0 0 0 0 0
584.11749 434.84674 16.526821 0 255 0 0 0 0 0
584.17584 434.99655 16.513254 0 255 0 0 0 0 0
584.22522 435.12283 16.515661 0 255 0 0 0 0 0
584.30878 435.33749 16.496283 0 255 0 0 0 0 0
584.37433 435.50507 16.501234 0 255 0 0 0 0 0
584.45789 435.71881 16.502899 0 255 0 0 0 0 0
584.57367 436.01538 16.495373 0 255 0 0 0 0 0
584.70935 436.36276 16.492077 0 255 0 0 0 0 0
583.90735 434.30185 16.510826 0 255 0 0 0 0 0
584.91486 436.86032 16.478558 0 255 0 0 0 0 0
583.92084 434.33569 16.521688 0 255 0 0 0 0 0
585.17865 437.53058 16.463099 0 255 0 0 0 0 0
583.94385 434.39413 16.519533 0 255 0 0 0 0 0
585.58075 438.55219 16.435051 0 255 0 0 0 0 0
583.97095 434.46313 16.514547 0 255 0 0 0 0 0
586.20642 440.14169 16.399223 0 255 0 0 0 0 0
583.99066 434.51276 16.523293 0 255 0 0 0 0 0
587.29895 442.91672 16.346359 0 255 0 0 0 0 0
584.01764 434.58118 16.524944 0 255 0 0 0 0 0
589.86243 449.42807 16.224997 0 255 0 0 0 0 0
584.04688 434.65527 16.527369 0 255 0 0 0 0 0
584.08777 434.7594 16.520922 0 255 0 0 0 0 0
584.12097 434.84338 16.527445 0 255 0 0 0 0 0
584.1756 434.98242 16.517723 0 255 0 0 0 0 0
584.23083 435.12268 16.514975 0 255 0 0 0 0 0
584.31152 435.32816 16.498434 0 255 0 0 0 0 0
584.38031 435.50272 16.501135 0 255 0 0 0 0 0
584.46661 435.72165 16.501379 0 255 0 0 0 0 0
584.58392 436.01978 16.493549 0 255 0 0 0 0 0
584.7149 436.35217 16.493458 0 255 0 0 0 0 0
583.91211 434.30548 16.507692 0 255 0 0 0 0 0
584.92438 436.85229 16.479042 0 255 0 0 0 0 0
583.92267 434.33124 16.523615 0 255 0 0 0 0 0
585.19324 437.52905 16.462303 0 255 0 0 0 0 0
583.94708 434.39285 16.51948 0 255 0 0 0 0 0
585.59412 438.53836 16.435747 0 255 0 0 0 0 0
583.9718 434.45511 16.518116 0 255 0 0 0 0 0
586.22333 440.12216 16.400042 0 255 0 0 0 0 0
583.99164 434.50461 16.52669 0 255 0 0 0 0 0
587.32526 442.89557 16.346607 0 255 0 0 0 0 0
584.02411 434.58646 16.521591 0 255 0 0 0 0 0
589.90918 449.39883 16.22467 0 255 0 0 0 0 0
584.0509 434.65366 16.527302 0 255 0 0 0 0 0
584.09082 434.75421 16.522322 0 255 0 0 0 0 0
584.12628 434.84329 16.526674 0 255 0 0 0 0 0
584.18414 434.98923 16.514391 0 255 0 0 0 0 0
584.23425 435.11517 16.516697 0 255 0 0 0 0 0
584.31696 435.32394 16.498892 0 255 0 0 0 0 0
584.38702 435.50006 16.501022 0 255 0 0 0 0 0
584.4754 435.72235 16.500315 0 255 0 0 0 0 0
584.59296 436.01828 16.492985 0 255 0 0 0 0 0
584.72284 436.34479 16.494061 0 255 0 0 0 0 0
583.91742 434.31076 16.503531 0 255 0 0 0 0 0
584.93402 436.84634 16.479204 0 255 0 0 0 0 0
583.92871 434.3382 16.518625 0 255 0 0 0 0 0
585.20557 437.52414 16.462099 0 255 0 0 0 0 0
583.95203 434.39655 16.516584 0 255 0 0 0 0 0
585.61017 438.53406 16.435249 0 255 0 0 0 0 0
583.97443 434.45218 16.518969 0 255 0 0 0 0 0
586.24335 440.11417 16.399708 0 255 0 0 0 0 0
583.99438 434.50159 16.527498 0 255 0 0 0 0 0
587.3476 442.86948 16.347332 0 255 0 0 0 0 0
584.0257 434.57993 16.523998 0 255 0 0 0 0 0
589.95972 449.38724 16.223467 0 255 0 0 0 0 0
584.05542 434.65384 16.526457 0 255 0 0 0 0 0
584.09155 434.7439 16.525936 0 255 0 0 0 0 0
584.13068 434.84152 16.526602 0 255 0 0 0 0 0
584.18689 434.98203 16.51626 0 255 0 0 0 0 0
584.24365 435.12375 16.51298 0 255 0 0 0 0 0
584.32208 435.31982 16.499355 0 255 0 0 0 0 0
584.39197 435.49393 16.501949 0 255 0 0 0 0 0
584.48096 435.71594 16.501139 0 255 0 0 0 0 0
584.59943 436.01151 16.493704 0 255 0 0 0 0 0
584.73456 436.34857 16.492393 0 255 0 0 0 0 0
583.92151 434.31281 16.501427 0 255 0 0 0 0 0
584.94507 436.84399 16.478699 0 255 0 0 0 0 0
583.92645 434.3241 16.526484 0 255 0 0 0 0 0
585.21716 437.51733 16.462181 0 255 0 0 0 0 0
583.95386 434.39206 16.518429 0 255 0 0 0 0 0
585.62628 438.52972 16.434752 0 255 0 0 0 0 0
583.97961 434.45584 16.516195 0 255 0 0 0 0 0
586.25964 440.09686 16.400354 0 255 0 0 0 0 0
583.99841 434.50189 16.526577 0 255 0 0 0 0 0
587.37952 442.86737 16.346115 0 255 0 0 0 0 0
584.03204 434.58524 16.520649 0 255 0 0 0 0 0
590.005 449.36255 16.222984 0 255 0 0 0 0 0
584.05719 434.64716 16.528734 0 255 0 0 0 0 0
584.09424 434.7388 16.527342 0 255 0 0 0 0 0
584.1358 434.84152 16.525835 0 255 0 0 0 0 0
584.19379 434.98535 16.514231 0 255 0 0 0 0 0
584.24817 435.11987 16.513498 0 255 0 0 0 0 0
584.33002 435.32285 16.497576 0 255 0 0 0 0 0
584.39758 435.48959 16.502361 0 255 0 0 0 0 0
584.48651 435.7095 16.501965 0 255 0 0 0 0 0
584.60797 436.01016 16.493149 0 255 0 0 0 0 0
584.74634 436.35229 16.490725 0 255 0 0 0 0 0
583.92096 434.30377 16.506525 0 255 0 0 0 0 0
584.95697 436.84555 16.477533 0 255 0 0 0 0 0
583.92914 434.323 16.52644 0 255 0 0 0 0 0
585.23022 437.5163 16.461411 0 255 0 0 0 0 0
583.95929 434.39743 16.514591 0 255 0 0 0 0 0
585.63922 438.5202 16.434998 0 255 0 0 0 0 0
583.98065 434.44965 16.518864 0 255 0 0 0 0 0
586.27917 440.09106 16.399845 0 255 0 0 0 0 0
584.00226 434.50226 16.52566 0 255 0 0 0 0 0
587.40607 442.8566 16.345673 0 255 0 0 0 0 0
584.0307 434.57202 16.52635 0 255 0 0 0 0 0
590.0376 449.31482 16.223894 0 255 0 0 0 0 0
584.06146 434.6474 16.527895 0 255 0 0 0 0 0
584.09949 434.74069 16.525805 0 255 0 0 0 0 0
584.13849 434.83636 16.527153 0 255 0 0 0 0 0
584.19757 434.98175 16.514805 0 255 0 0 0 0 0
584.25165 435.11432 16.514627 0 255 0 0 0 0 0
584.33551 435.32062 16.497484 0 255 0 0 0 0 0
584.40204 435.48361 16.503294 0 255 0 0 0 0 0
584.49231 435.70505 16.502327 0 255 0 0 0 0 0
584.61462 436.00534 16.49345 0 255 0 0 0 0 0
584.74957 436.33615 16.493248 0 255 0 0 0 0 0
583.92651 434.30893 16.502361 0 255 0 0 0 0 0
584.96344 436.83011 16.479357 0 255 0 0 0 0 0
583.93542 434.32983 16.521446 0 255 0 0 0 0 0
585.24182 437.50729 16.461771 0 255 0 0 0 0 0
583.96124 434.39282 16.516432 0 255 0 0 0 0 0
585.65466 438.51172 16.434969 0 255 0 0 0 0 0
583.98273 434.44492 16.52062 0 255 0 0 0 0 0
586.29578 440.07138 16.400669 0 255 0 0 0 0 0
584.00311 434.49411 16.529058 0 255 0 0 0 0 0
587.42981 442.82962 16.346373 0 255 0 0 0 0 0
584.0379 434.57892 16.522173 0 255 0 0 0 0 0
590.08386 449.28506 16.223576 0 255 0 0 0 0 0
584.06549 434.64575 16.527826 0 255 0 0 0 0 0
584.10382 434.73892 16.525732 0 255 0 0 0 0 0
584.14453 434.83792 16.525688 0 255 0 0 0 0 0
584.2027 434.97968 16.514721 0 255 0 0 0 0 0
584.25427 435.10501 16.516956 0 255 0 0 0 0 0
584.33728 435.30743 16.500748 0 255 0 0 0 0 0
584.40942 435.48267 16.502666 0 255 0 0 0 0 0
584.49896 435.70023 16.502674 0 255 0 0 0 0 0
584.62292 436.00195 16.493313 0 255 0 0 0 0 0
584.75812 436.33051 16.493473 0 255 0 0 0 0 0
583.92786 434.30466 16.504375 0 255 0 0 0 0 0
584.97314 436.82611 16.479197 0 255 0 0 0 0 0
583.94006 434.33356 16.518436 0 255 0 0 0 0 0
585.25409 437.50433 16.461288 0 255 0 0 0 0 0
583.96149 434.3851 16.520176 0 255 0 0 0 0 0
585.66901 438.5058 16.434731 0 255 0 0 0 0 0
583.98846 434.45029 16.516943 0 255 0 0 0 0 0
586.31604 440.06732 16.399965 0 255 0 0 0 0 0
584.00903 434.49948 16.525547 0 255 0 0 0 0 0
587.45312 442.81134 16.346533 0 255 0 0 0 0 0
584.04266 434.58087 16.520472 0 255 0 0 0 0 0
590.12451 449.25748 16.223352 0 255 0 0 0 0 0
584.07465 434.65793 16.521524 0 255 0 0 0 0 0
584.11047 434.74423 16.52272 0 255 0 0 0 0 0
584.15076 434.84143 16.523539 0 255 0 0 0 0 0
584.20721 434.97781 16.514645 0 255 0 0 0 0 0
584.26276 435.11182 16.513847 0 255 0 0 0 0 0
584.34784 435.31763 16.496731 0 255 0 0 0 0 0
584.41608 435.48203 16.502052 0 255 0 0 0 0 0
584.50769 435.70294 16.501152 0 255 0 0 0 0 0
584.6333 436.00613 16.491486 0 255 0 0 0 0 0
584.76715 436.32892 16.492954 0 255 0 0 0 0 0
583.93115 434.30515 16.503302 0 255 0 0 0 0 0
584.98584 436.82938 16.477697 0 255 0 0 0 0 0
583.94012 434.32599 16.522345 0 255 0 0 0 0 0
585.26569 437.49951 16.461096 0 255 0 0 0 0 0
583.96698 434.39044 16.516336 0 255 0 0 0 0 0
585.6803 438.49249 16.435461 0 255 0 0 0 0 0
583.99011 434.44571 16.518707 0 255 0 0 0 0 0
586.33167 440.05219 16.400436 0 255 0 0 0 0 0
584.00946 434.49149 16.528954 0 255 0 0 0 0 0
587.48413 442.8114 16.345194 0 255 0 0 0 0 0
584.04193 434.56934 16.525352 0 255 0 0 0 0 0
590.16498 449.2298 16.223131 0 255 0 0 0 0 0
584.07196 434.64108 16.528488 0 255 0 0 0 0 0
584.11432 434.74261 16.522655 0 255 0 0 0 0 0
584.15277 434.83453 16.525553 0 255 0 0 0 0 0
584.21173 434.97595 16.51457 0 255 0 0 0 0 0
584.26544 435.10452 16.515583 0 255 0 0 0 0 0
584.34888 435.30469 16.500006 0 255 0 0 0 0 0
584.42273 435.48132 16.501436 0 255 0 0 0 0 0
584.51349 435.69843 16.501514 0 255 0 0 0 0 0
584.63763 435.99585 16.493067 0 255 0 0 0 0 0
584.77472 436.32364 16.493196 0 255 0 0 0 0 0
583.93719 434.31192 16.49811 0 255 0 0 0 0 0
584.99689 436.82687 16.47719 0 255 0 0 0 0 0
583.94434 434.328 16.520321 0 255 0 0 0 0 0
585.27563 437.48889 16.461758 0 255 0 0 0 0 0
583.96936 434.38754 16.517233 0 255 0 0 0 0 0
585.69629 438.48795 16.434965 0 255 0 0 0 0 0
583.99677 434.45261 16.514118 0 255 0 0 0 0 0
586.3515 440.04385 16.400106 0 255 0 0 0 0 0
584.01556 434.49677 16.525438 0 255 0 0 0 0 0
587.50287 442.77759 16.346525 0 255 0 0 0 0 0
584.0462 434.56952 16.524469 0 255 0 0 0 0 0
590.19653 449.17325 16.224419 0 255 0 0 0 0 0
584.07788 434.64459 16.526083 0 255 0 0 0 0 0
584.11841 434.74091 16.522589 0 255 0 0 0 0 0
584.1557 434.82922 16.526867 0 255 0 0 0 0 0
584.21576 434.9722 16.515141 0 255 0 0 0 0 0
584.27209 435.10587 16.514286 0 255 0 0 0 0 0
584.35461 435.30228 16.49991 0 255 0 0 0 0 0
584.42902 435.4787 16.501331 0 255 0 0 0 0 0
584.52264 435.7009 16.499987 0 255 0 0 0 0 0
584.64471 435.99075 16.493362 0 255 0 0 0 0 0
584.78497 436.32358 16.492289 0 255 0 0 0 0 0
583.93427 434.29639 16.507322 0 255 0 0 0 0 0
585.00238 436.80954 16.479351 0 255 0 0 0 0 0
583.94934 434.33154 16.517303 0 255 0 0 0 0 0
585.28937 437.48523 16.461252 0 255 0 0 0 0 0
583.9726 434.38617 16.517179 0 255 0 0 0 0 0
585.71313 438.48294 16.434454 0 255 0 0 0 0 0
583.99811 434.44623 16.516783 0 255 0 0 0 0 0
586.36786 440.02399 16.400934 0 255 0 0 0 0 0
584.02051 434.4986 16.523647 0 255 0 0 0 0 0
587.5293 442.75772 16.346634 0 255 0 0 0 0 0
584.04999 434.56793 16.524406 0 255 0 0 0 0 0
590.24231 449.14304 16.22411 0 255 0 0 0 0 0
584.08405 434.64801 16.523674 0 255 0 0 0 0 0
584.12347 434.74078 16.521778 0 255 0 0 0 0 0
584.16028 434.82727 16.526791 0 255 0 0 0 0 0
584.22083 434.97003 16.515055 0 255 0 0 0 0 0
584.27606 435.10004 16.515406 0 255 0 0 0 0 0
584.36224 435.30325 16.498686 0 255 0 0 0 0 0
584.43567 435.47589 16.501221 0 255 0 0 0 0 0
584.52625 435.68884 16.50222 0 255 0 0 0 0 0
584.65448 435.99088 16.492373 0 255 0 0 0 0 0
584.79657 436.32507 16.490992 0 255 0 0 0 0 0
583.93652 434.29355 16.508303 0 255 0 0 0 0 0
585.01166 436.8013 16.479841 0 255 0 0 0 0 0
583.94702 434.31741 16.525164 0 255 0 0 0 0 0
585.29999 437.47424 16.461905 0 255 0 0 0 0 0
583.97241 434.37668 16.521868 0 255 0 0 0 0 0
585.72998 438.47791 16.433943 0 255 0 0 0 0 0
583.99805 434.43655 16.521261 0 255 0 0 0 0 0
586.38794 440.01321 16.400782 0 255 0 0 0 0 0
584.02405 434.49707 16.523588 0 255 0 0 0 0 0
587.55804 442.74329 16.346291 0 255 0 0 0 0 0
584.05591 434.57135 16.521873 0 255 0 0 0 0 0
590.28711 449.11087 16.223906 0 255 0 0 0 0 0
584.08234 434.63269 16.529852 0 255 0 0 0 0 0
584.12848 434.74066 16.520969 0 255 0 0 0 0 0
584.16785 434.83221 16.523937 0 255 0 0 0 0 0
584.22809 434.97311 16.513021 0 255 0 0 0 0 0
584.28229 435.09946 16.514709 0 255 0 0 0 0 0
584.36682 435.29712 16.499708 0 255 0 0 0 0 0
584.4408 435.46948 16.502144 0 255 0 0 0 0 0
584.5282 435.67319 16.505398 0 255 0 0 0 0 0
584.66351 435.98914 16.491808 0 255 0 0 0 0 0
584.802 436.31207 16.492741 0 255 0 0 0 0 0
583.93909 434.29245 16.508261 0 255 0 0 0 0 0
585.02356 436.80261 16.478676 0 255 0 0 0 0 0
583.95306 434.32428 16.520174 0 255 0 0 0 0 0
585.31299 437.47293 16.461134 0 255 0 0 0 0 0
583.97797 434.38196 16.518026 0 255 0 0 0 0 0
585.73956 438.46082 16.435162 0 255 0 0 0 0 0
584.00592 434.44675 16.51486 0 255 0 0 0 0 0
586.40497 440.00156 16.400866 0 255 0 0 0 0 0
584.02582 434.49237 16.525267 0 255 0 0 0 0 0
587.58185 442.72653 16.346306 0 255 0 0 0 0 0
584.06067 434.57324 16.52017 0 255 0 0 0 0 0
590.31757 449.06076 16.224939 0 255 0 0 0 0 0
584.09094 434.64304 16.524328 0 255 0 0 0 0 0
584.13306 434.74069 16.520166 0 255 0 0 0 0 0
584.16681 434.81836 16.528727 0 255 0 0 0 0 0
584.23035 434.96597 16.514896 0 255 0 0 0 0 0
584.28491 435.0921 16.516447 0 255 0 0 0 0 0
584.3692 435.28772 16.501863 0 255 0 0 0 0 0
584.44666 435.46695 16.502045 0 255 0 0 0 0 0
584.54077 435.68472 16.501518 0 255 0 0 0 0 0
584.67004 435.98419 16.492113 0 255 0 0 0 0 0
584.81183 436.31213 16.491842 0 255 0 0 0 0 0
583.93921 434.28491 16.512331 0 255 0 0 0 0 0
585.04004 436.81265 16.475826 0 255 0 0 0 0 0
583.95251 434.31503 16.525072 0 255 0 0 0 0 0
585.32758 437.47311 16.460064 0 255 0 0 0 0 0
583.98102 434.38065 16.517977 0 255 0 0 0 0 0
585.75861 438.46338 16.433695 0 255 0 0 0 0 0
584.00568 434.43716 16.519344 0 255 0 0 0 0 0
586.4278 440.00034 16.39975 0 255 0 0 0 0 0
584.02917 434.49091 16.525211 0 255 0 0 0 0 0
587.60718 442.70898 16.346292 0 255 0 0 0 0 0
584.05853 434.55829 16.526697 0 255 0 0 0 0 0
590.35541 449.02042 16.225307 0 255 0 0 0 0 0
584.08966 434.62955 16.52973 0 255 0 0 0 0 0
584.13715 434.73892 16.5201 0 255 0 0 0 0 0
584.1748 434.8251 16.525185 0 255 0 0 0 0 0
584.23138 434.9552 16.51807 0 255 0 0 0 0 0
584.29004 435.08987 16.516361 0 255 0 0 0 0 0
584.37872 435.29407 16.49896 0 255 0 0 0 0 0
584.45599 435.47134 16.499874 0 255 0 0 0 0 0
584.54535 435.67636 16.502819 0 255 0 0 0 0 0
584.67938 435.98441 16.491131 0 255 0 0 0 0 0
584.81824 436.30295 16.492838 0 255 0 0 0 0 0
583.94531 434.2916 16.507139 0 255 0 0 0 0 0
585.04474 436.79553 16.478001 0 255 0 0 0 0 0
583.9588 434.32178 16.520079 0 255 0 0 0 0 0
585.3374 437.46234 16.460728 0 255 0 0 0 0 0
583.98541 434.38254 16.516029 0 255 0 0 0 0 0
585.76978 438.44766 16.434658 0 255 0 0 0 0 0
584.01166 434.44232 16.515661 0 255 0 0 0 0 0
586.44427 439.98444 16.400208 0 255 0 0 0 0 0
584.0318 434.48779 16.52602 0 255 0 0 0 0 0
587.63971 442.70782 16.344927 0 255 0 0 0 0 0
584.06641 434.56677 16.521698 0 255 0 0 0 0 0
590.39777 448.99097 16.225052 0 255 0 0 0 0 0
584.09705 434.63635 16.525763 0 255 0 0 0 0 0
584.14197 434.73886 16.519293 0 255 0 0 0 0 0
584.18286 434.83182 16.521641 0 255 0 0 0 0 0
584.23987 434.96182 16.514738 0 255 0 0 0 0 0
584.29742 435.0929 16.514458 0 255 0 0 0 0 0
584.38593 435.29507 16.497742 0 255 0 0 0 0 0
584.45917 435.46152 16.501837 0 255 0 0 0 0 0
584.5553 435.68051 16.500816 0 255 0 0 0 0 0
584.68561 435.97742 16.491854 0 255 0 0 0 0 0
584.82928 436.30453 16.49155 0 255 0 0 0 0 0
583.94995 434.2952 16.504007 0 255 0 0 0 0 0
585.0575 436.79852 16.476501 0 255 0 0 0 0 0
583.96143 434.32062 16.520035 0 255 0 0 0 0 0
585.34882 437.45728 16.460537 0 255 0 0 0 0 0
583.98547 434.37485 16.519775 0 255 0 0 0 0 0
585.784 438.44141 16.43442 0 255 0 0 0 0 0
584.01324 434.43771 16.517426 0 255 0 0 0 0 0
586.46033 439.97083 16.40049 0 255 0 0 0 0 0
584.03564 434.48807 16.525103 0 255 0 0 0 0 0
587.65613 442.67444 16.346298 0 255 0 0 0 0 0
584.06616 434.55695 16.525759 0 255 0 0 0 0 0
590.43896 448.96625 16.224636 0 255 0 0 0 0 0
584.10059 434.63477 16.525703 0 255 0 0 0 0 0
584.14508 434.73544 16.519966 0 255 0 0 0 0 0
584.1817 434.81799 16.526432 0 255 0 0 0 0 0
584.24432 434.95984 16.514664 0 255 0 0 0 0 0
584.30298 435.0925 16.513769 0 255 0 0 0 0 0
584.39368 435.29797 16.495966 0 255 0 0 0 0 0
584.46808 435.46603 16.499672 0 255 0 0 0 0 0
584.55945 435.6723 16.502125 0 255 0 0 0 0 0
584.69135 435.97061 16.492584 0 255 0 0 0 0 0
584.83594 436.2973 16.492174 0 255 0 0 0 0 0
583.9472 434.28137 16.512197 0 255 0 0 0 0 0
585.0661 436.79041 16.477001 0 255 0 0 0 0 0
583.96222 434.31458 16.522955 0 255 0 0 0 0 0
585.36176 437.4537 16.460045 0 255 0 0 0 0 0
583.98846 434.3735 16.519726 0 255 0 0 0 0 0
585.79498 438.42563 16.435385 0 255 0 0 0 0 0
584.01501 434.43304 16.519188 0 255 0 0 0 0 0
586.47913 439.9603 16.40036 0 255 0 0 0 0 0
584.04114 434.49155 16.522449 0 255 0 0 0 0 0
587.6886 442.6731 16.344933 0 255 0 0 0 0 0
584.07263 434.56204 16.522406 0 255 0 0 0 0 0
590.47546 448.9238 16.225115 0 255 0 0 0 0 0
584.1051 434.6348 16.52486 0 255 0 0 0 0 0
584.14691 434.72855 16.522112 0 255 0 0 0 0 0
584.18677 434.81778 16.525665 0 255 0 0 0 0 0
584.24902 434.95773 16.514584 0 255 0 0 0 0 0
584.31122 435.0972 16.511259 0 255 0 0 0 0 0
584.3963 435.28839 16.498117 0 255 0 0 0 0 0
584.46887 435.45087 16.503187 0 255 0 0 0 0 0
584.56866 435.67459 16.500595 0 255 0 0 0 0 0
584.69904 435.96719 16.492456 0 255 0 0 0 0 0
584.8446 436.29346 16.492029 0 255 0 0 0 0 0
583.95325 434.28809 16.507006 0 255 0 0 0 0 0
585.07483 436.7843 16.477177 0 255 0 0 0 0 0
583.96979 434.32452 16.515985 0 255 0 0 0 0 0
585.37396 437.45038 16.459564 0 255 0 0 0 0 0
583.992 434.37384 16.51873 0 255 0 0 0 0 0
585.80994 438.42111 16.434906 0 255 0 0 0 0 0
584.01874 434.43332 16.51823 0 255 0 0 0 0 0
586.49432 439.94476 16.400839 0 255 0 0 0 0 0
584.04285 434.48682 16.524128 0 255 0 0 0 0 0
587.71051 442.65237 16.345253 0 255 0 0 0 0 0
584.08112 434.5722 16.516584 0 255 0 0 0 0 0
590.51648 448.89886 16.224703 0 255 0 0 0 0 0
584.10718 434.62982 16.526363 0 255 0 0 0 0 0
584.15149 434.72855 16.521311 0 255 0 0 0 0 0
584.19159 434.81769 16.524904 0 255 0 0 0 0 0
584.25653 434.96268 16.511908 0 255 0 0 0 0 0
584.31293 435.08807 16.513603 0 255 0 0 0 0 0
584.40009 435.28247 16.499151 0 255 0 0 0 0 0
584.47473 435.44827 16.50309 0 255 0 0 0 0 0
584.57355 435.66815 16.501431 0 255 0 0 0 0 0
584.70551 435.96216 16.492762 0 255 0 0 0 0 0
584.85199 436.28799 16.492273 0 255 0 0 0 0 0
583.95612 434.28677 16.506958 0 255 0 0 0 0 0
585.08557 436.77945 16.476997 0 255 0 0 0 0 0
583.97211 434.32156 16.516924 0 255 0 0 0 0 0
585.38519 437.44098 16.459929 0 255 0 0 0 0 0
583.99731 434.37723 16.515831 0 255 0 0 0 0 0
585.82666 438.41577 16.434397 0 255 0 0 0 0 0
584.0235 434.43506 16.516357 0 255 0 0 0 0 0
586.5174 439.94089 16.399902 0 255 0 0 0 0 0
584.04639 434.48523 16.524069 0 255 0 0 0 0 0
587.73474 442.6283 16.345671 0 255 0 0 0 0 0
584.07971 434.55884 16.522285 0 255 0 0 0 0 0
590.56195 448.8696 16.224306 0 255 0 0 0 0 0
584.11041 434.62634 16.527077 0 255 0 0 0 0 0
584.15649 434.7283 16.5205 0 255 0 0 0 0 0
584.19312 434.80878 16.527605 0 255 0 0 0 0 0
584.2616 434.96039 16.511824 0 255 0 0 0 0 0
584.31445 435.07693 16.516546 0 255 0 0 0 0 0
584.40533 435.27802 16.499613 0 255 0 0 0 0 0
584.48364 435.45059 16.501429 0 255 0 0 0 0 0
584.57599 435.65424 16.504143 0 255 0 0 0 0 0
584.71289 435.9567 16.493052 0 255 0 0 0 0 0
584.86438 436.29102 16.490595 0 255 0 0 0 0 0
583.96307 434.29492 16.500732 0 255 0 0 0 0 0
585.09412 436.77127 16.477499 0 255 0 0 0 0 0
583.97278 434.31552 16.519844 0 255 0 0 0 0 0
585.39563 437.43188 16.460306 0 255 0 0 0 0 0
583.99884 434.37265 16.517677 0 255 0 0 0 0 0
585.84161 438.40894 16.434147 0 255 0 0 0 0 0
584.026 434.43201 16.517212 0 255 0 0 0 0 0
586.53528 439.92841 16.399971 0 255 0 0 0 0 0
584.04822 434.48044 16.525745 0 255 0 0 0 0 0
587.75891 442.60855 16.345814 0 255 0 0 0 0 0
584.08551 434.56223 16.519756 0 255 0 0 0 0 0
590.59961 448.83047 16.224583 0 255 0 0 0 0 0
584.11566 434.62802 16.525452 0 255 0 0 0 0 0
584.16211 434.72983 16.518957 0 255 0 0 0 0 0
584.19971 434.81195 16.52545 0 255 0 0 0 0 0
584.26166 434.94791 16.51565 0 255 0 0 0 0 0
584.32111 435.07809 16.515247 0 255 0 0 0 0 0
584.4126 435.27893 16.498394 0 255 0 0 0 0 0
584.49219 435.45306 16.499773 0 255 0 0 0 0 0
584.58838 435.66354 16.500723 0 255 0 0 0 0 0
584.71899 435.94962 16.493776 0 255 0 0 0 0 0
584.87067 436.28168 16.491594 0 255 0 0 0 0 0
583.96637 434.29529 16.499659 0 255 0 0 0 0 0
585.10522 436.77048 16.476667 0 255 0 0 0 0 0
583.974 434.31113 16.52178 0 255 0 0 0 0 0
585.40784 437.42847 16.459827 0 255 0 0 0 0 0
584.00244 434.37296 16.516682 0 255 0 0 0 0 0
585.85486 438.4007 16.434155 0 255 0 0 0 0 0
584.0304 434.43387 16.515347 0 255 0 0 0 0 0
586.55273 439.91818 16.399862 0 255 0 0 0 0 0
584.04987 434.47571 16.527426 0 255 0 0 0 0 0
587.78387 442.59491 16.345533 0 255 0 0 0 0 0
584.07538 434.53079 16.534529 0 255 0 0 0 0 0
590.64862 448.82339 16.223127 0 255 0 0 0 0 0
584.1192 434.62637 16.525393 0 255 0 0 0 0 0
584.16357 434.72302 16.521109 0 255 0 0 0 0 0
584.20142 434.80496 16.527466 0 255 0 0 0 0 0
584.26611 434.94586 16.515575 0 255 0 0 0 0 0
584.32751 435.07935 16.513954 0 255 0 0 0 0 0
584.41479 435.26947 16.500553 0 255 0 0 0 0 0
584.49561 435.44513 16.501228 0 255 0 0 0 0 0
584.59241 435.6553 16.502033 0 255 0 0 0 0 0
584.72943 435.95343 16.491947 0 255 0 0 0 0 0
584.87799 436.27615 16.49184 0 255 0 0 0 0 0
583.96576 434.28613 16.504761 0 255 0 0 0 0 0
585.11597 436.76553 16.47649 0 255 0 0 0 0 0
583.97699 434.30975 16.521729 0 255 0 0 0 0 0
585.42139 437.42438 16.459324 0 255 0 0 0 0 0
584.00488 434.3699 16.517578 0 255 0 0 0 0 0
585.86987 438.39157 16.434134 0 255 0 0 0 0 0
584.03381 434.43231 16.515291 0 255 0 0 0 0 0
586.56665 439.89423 16.401096 0 255 0 0 0 0 0
584.05042 434.46753 16.53083 0 255 0 0 0 0 0
587.80615 442.56702 16.346258 0 255 0 0 0 0 0
584.09265 434.55896 16.519636 0 255 0 0 0 0 0
590.68121 448.76654 16.224306 0 255 0 0 0 0 0
584.12317 434.62454 16.525328 0 255 0 0 0 0 0
584.16553 434.71597 16.523251 0 255 0 0 0 0 0
584.20831 434.80798 16.525307 0 255 0 0 0 0 0
584.27423 434.95044 16.512888 0 255 0 0 0 0 0
584.33051 435.07166 16.515684 0 255 0 0 0 0 0
584.42157 435.26846 16.499891 0 255 0 0 0 0 0
584.5022 435.44211 16.501118 0 255 0 0 0 0 0
584.6004 435.65375 16.50144 0 255 0 0 0 0 0
584.73999 435.95499 16.49053 0 255 0 0 0 0 0
584.88629 436.27017 16.492067 0 255 0 0 0 0 0
583.96564 434.27863 16.508835 0 255 0 0 0 0 0
585.12439 436.75726 16.476992 0 255 0 0 0 0 0
583.9798 434.30844 16.521683 0 255 0 0 0 0 0
585.43262 437.41696 16.459412 0 255 0 0 0 0 0
584.00562 434.36371 16.520374 0 255 0 0 0 0 0
585.88226 438.37921 16.434616 0 255 0 0 0 0 0
584.03619 434.42923 16.516146 0 255 0 0 0 0 0
586.59021 439.89423 16.399786 0 255 0 0 0 0 0
584.05817 434.47583 16.525579 0 255 0 0 0 0 0
587.83514 442.55792 16.345499 0 255 0 0 0 0 0
584.09235 434.54901 16.523697 0 255 0 0 0 0 0
590.73108 448.7543 16.223019 0 255 0 0 0 0 0
584.12689 434.6228 16.525265 0 255 0 0 0 0 0
584.17035 434.71579 16.522446 0 255 0 0 0 0 0
584.21497 434.8111 16.523149 0 255 0 0 0 0 0
584.27655 434.94312 16.514763 0 255 0 0 0 0 0
584.34039 435.07968 16.511959 0 255 0 0 0 0 0
584.42963 435.27106 16.498108 0 255 0 0 0 0 0
584.50995 435.44272 16.499979 0 255 0 0 0 0 0
584.60718 435.65057 16.501326 0 255 0 0 0 0 0
584.74524 435.94608 16.491684 0 255 0 0 0 0 0
584.89905 436.27505 16.490015 0 255 0 0 0 0 0
583.9718 434.28522 16.503641 0 255 0 0 0 0 0
585.1347 436.75461 16.476498 0 255 0 0 0 0 0
583.98175 434.3056 16.522629 0 255 0 0 0 0 0
585.44562 437.41525 16.458643 0 255 0 0 0 0 0
584.00916 434.36398 16.519379 0 255 0 0 0 0 0
585.89795 438.37625 16.433895 0 255 0 0 0 0 0
584.03693 434.42297 16.51882 0 255 0 0 0 0 0
586.6059 439.88025 16.400072 0 255 0 0 0 0 0
584.06433 434.48093 16.522062 0 255 0 0 0 0 0
587.8642 442.5531 16.344465 0 255 0 0 0 0 0
584.09796 434.55243 16.52117 0 255 0 0 0 0 0
590.76215 448.70886 16.223768 0 255 0 0 0 0 0
584.12891 434.61783 16.526768 0 255 0 0 0 0 0
584.17645 434.71909 16.520166 0 255 0 0 0 0 0
584.21661 434.80411 16.525167 0 255 0 0 0 0 0
584.28094 434.94104 16.514688 0 255 0 0 0 0 0
584.34033 435.06708 16.51552 0 255 0 0 0 0 0
584.4317 435.2616 16.500269 0 255 0 0 0 0 0
584.51495 435.43826 16.500401 0 255 0 0 0 0 0
584.61194 435.64404 16.502165 0 255 0 0 0 0 0
584.75165 435.94095 16.491991 0 255 0 0 0 0 0
584.90637 436.26944 16.490261 0 255 0 0 0 0 0
583.97235 434.27924 16.506685 0 255 0 0 0 0 0
585.14642 436.75342 16.475657 0 255 0 0 0 0 0
583.98816 434.31216 16.517632 0 255 0 0 0 0 0
585.45508 437.40421 16.459311 0 255 0 0 0 0 0
584.01361 434.36578 16.517431 0 255 0 0 0 0 0
585.91193 438.36743 16.433889 0 255 0 0 0 0 0
584.04083 434.4231 16.517859 0 255 0 0 0 0 0
586.62012 439.86032 16.400934 0 255 0 0 0 0 0
584.06384 434.47119 16.526339 0 255 0 0 0 0 0
587.89313 442.54382 16.343706 0 255 0 0 0 0 0
584.09845 434.54416 16.524408 0 255 0 0 0 0 0
590.79565 448.66208 16.224478 0 255 0 0 0 0 0
584.13336 434.61774 16.525925 0 255 0 0 0 0 0
584.17889 434.71381 16.521576 0 255 0 0 0 0 0
584.21771 434.79529 16.527876 0 255 0 0 0 0 0
584.28802 434.94397 16.512657 0 255 0 0 0 0 0
584.34698 435.06815 16.514221 0 255 0 0 0 0 0
584.44061 435.26587 16.497925 0 255 0 0 0 0 0
584.51947 435.43185 16.501333 0 255 0 0 0 0 0
584.62036 435.64438 16.501106 0 255 0 0 0 0 0
584.76178 435.94263 16.49058 0 255 0 0 0 0 0
584.91333 436.26181 16.490881 0 255 0 0 0 0 0
583.9729 434.27328 16.509731 0 255 0 0 0 0 0
585.15479 436.74506 16.47616 0 255 0 0 0 0 0
583.99023 434.30927 16.518574 0 255 0 0 0 0 0
585.4696 437.40384 16.458241 0 255 0 0 0 0 0
584.01733 434.36597 16.516432 0 255 0 0 0 0 0
585.9259 438.35855 16.433886 0 255 0 0 0 0 0
584.04779 434.42966 16.513266 0 255 0 0 0 0 0
586.6394 439.85114 16.400612 0 255 0 0 0 0 0
584.0694 434.47452 16.523684 0 255 0 0 0 0 0
587.90918 442.50745 16.345219 0 255 0 0 0 0 0
584.10114 434.54083 16.525173 0 255 0 0 0 0 0
590.84619 448.65128 16.223087 0 255 0 0 0 0 0
584.13947 434.62094 16.523518 0 255 0 0 0 0 0
584.18372 434.71356 16.520771 0 255 0 0 0 0 0
584.22516 434.80005 16.525024 0 255 0 0 0 0 0
584.29108 434.93829 16.513882 0 255 0 0 0 0 0
584.34961 435.06055 16.515957 0 255 0 0 0 0 0
584.44543 435.26144 16.498394 0 255 0 0 0 0 0
584.52557 435.42892 16.50123 0 255 0 0 0 0 0
584.62128 435.62885 16.504301 0 255 0 0 0 0 0
584.76691 435.93369 16.491734 0 255 0 0 0 0 0
584.92529 436.26483 16.489208 0 255 0 0 0 0 0
583.98163 434.28433 16.50144 0 255 0 0 0 0 0
585.16455 436.73819 16.476318 0 255 0 0 0 0 0
583.9895 434.29996 16.523476 0 255 0 0 0 0 0
585.47888 437.39062 16.459188 0 255 0 0 0 0 0
584.01898 434.36127 16.518278 0 255 0 0 0 0 0
585.94336 438.35461 16.433134 0 255 0 0 0 0 0
584.04578 434.41678 16.519567 0 255 0 0 0 0 0
586.65802 439.83777 16.400667 0 255 0 0 0 0 0
584.07288 434.47284 16.523626 0 255 0 0 0 0 0
587.93787 442.49365 16.344738 0 255 0 0 0 0 0
584.10638 434.54236 16.523462 0 255 0 0 0 0 0
590.87775 448.59402 16.224281 0 255 0 0 0 0 0
584.14105 434.61407 16.525797 0 255 0 0 0 0 0
584.18793 434.71155 16.5207 0 255 0 0 0 0 0
584.22888 434.79617 16.525644 0 255 0 0 0 0 0
584.29688 434.93765 16.513147 0 255 0 0 0 0 0
584.35742 435.06314 16.514048 0 255 0 0 0 0 0
584.45306 435.26205 16.497168 0 255 0 0 0 0 0
584.5329 435.42755 16.500603 0 255 0 0 0 0 0
584.63513 435.63947 16.500401 0 255 0 0 0 0 0
584.77667 435.93332 16.490744 0 255 0 0 0 0 0
584.93097 436.25336 16.490585 0 255 0 0 0 0 0
583.98328 434.28162 16.50243 0 255 0 0 0 0 0
585.17426 436.73569 16.475836 0 255 0 0 0 0 0
583.9942 434.3035 16.520464 0 255 0 0 0 0 0
585.492 437.39087 16.458141 0 255 0 0 0 0 0
584.02008 434.35681 16.520132 0 255 0 0 0 0 0
585.95465 438.34473 16.433405 0 255 0 0 0 0 0
584.05164 434.42188 16.515888 0 255 0 0 0 0 0
586.67236 439.82422 16.400976 0 255 0 0 0 0 0
584.07269 434.46494 16.527042 0 255 0 0 0 0 0
587.96002 442.47852 16.344641 0 255 0 0 0 0 0
584.11029 434.54251 16.522587 0 255 0 0 0 0 0
